ply
format ascii 1.0
element vertex 242
property float x
property float y
property float z
property uchar red
property uchar green
property uchar blue
end_header
-0.0000 -0.0000 -0.9502 255 255 255 
0.0000 0.0000 0.9502 255 255 255 
0.0000 -0.9508 -0.0000 255 255 255 
-0.0000 0.9508 -0.0000 255 255 255 
0.1314 -0.4045 -0.8360 255 255 255 
0.1314 0.4045 -0.8360 255 255 255 
0.2626 0.8083 0.4249 255 255 255 
-0.8176 0.4152 0.2301 255 255 255 
-0.8176 -0.4152 0.2301 255 255 255 
0.4147 -0.8013 -0.2563 255 255 255 
0.4147 0.8013 -0.2563 255 255 255 
0.5715 0.4152 -0.6284 255 255 255 
0.5715 -0.4152 -0.6284 255 255 255 
0.2183 -0.6719 0.6284 255 255 255 
0.2183 0.6719 0.6284 255 255 255 
-0.3335 0.5513 0.6816 255 255 255 
0.2881 0.8866 0.1491 255 255 255 
0.1545 -0.4754 0.8088 255 255 255 
-0.2461 -0.0000 -0.9129 255 255 255 
0.9043 0.2938 0.0000 255 255 255 
0.9043 -0.2938 0.0000 255 255 255 
-0.8065 0.4045 -0.2563 255 255 255 
0.3441 0.2500 0.8360 255 255 255 
0.6876 -0.4996 -0.4249 255 255 255 
-0.1422 0.9059 -0.2301 255 255 255 
-0.1422 -0.9059 -0.2301 255 255 255 
0.7423 -0.5393 0.1752 255 255 255 
0.7423 0.5393 0.1752 255 255 255 
0.4044 0.2938 -0.8088 255 255 255 
0.4044 -0.2938 -0.8088 255 255 255 
-0.7706 -0.2706 0.4763 255 255 255 
-0.7706 0.2706 0.4763 255 255 255 
-0.7541 0.5479 0.1491 255 255 255 
0.7825 0.2341 0.4763 255 255 255 
0.7825 -0.2341 0.4763 255 255 255 
-0.5671 -0.0000 0.7423 255 255 255 
-0.1991 -0.1447 0.9129 255 255 255 
-0.1991 0.1447 0.9129 255 255 255 
-0.9056 -0.1447 -0.2301 255 255 255 
-0.9056 0.1447 -0.2301 255 255 255 
-0.9322 -0.0000 -0.1491 255 255 255 
0.8499 0.0000 0.4249 255 255 255 
-0.9176 -0.0000 0.1752 255 255 255 
0.2294 0.1667 0.9004 255 255 255 
0.2294 -0.1667 0.9004 255 255 255 
-0.8418 0.2782 0.3243 255 255 255 
-0.8418 -0.2782 0.3243 255 255 255 
0.5589 0.7692 0.0000 255 255 255 
0.5589 -0.7692 -0.0000 255 255 255 
0.0192 0.8165 0.4763 255 255 255 
0.0192 -0.8165 0.4763 255 255 255 
0.0587 -0.7199 0.6079 255 255 255 
0.0542 -0.6421 -0.6816 255 255 255 
0.0542 0.6421 -0.6816 255 255 255 
0.5175 0.7199 0.3243 255 255 255 
0.4174 0.8165 0.2301 255 255 255 
0.4174 -0.8165 0.2301 255 255 255 
0.2898 0.8921 -0.0065 255 255 255 
0.2898 -0.8921 -0.0065 255 255 255 
-0.4706 0.5479 0.6079 255 255 255 
-0.4706 -0.5479 0.6079 255 255 255 
0.8088 -0.0000 -0.4999 255 255 255 
-0.2836 -0.0000 0.9004 255 255 255 
-0.2836 -0.8727 0.1752 255 255 255 
-0.2836 0.8727 0.1752 255 255 255 
0.4213 -0.4876 0.6816 255 255 255 
0.4213 0.4876 0.6816 255 255 255 
-0.1355 0.8921 0.2563 255 255 255 
-0.1355 -0.8921 0.2563 255 255 255 
-0.1752 -0.5393 0.7423 255 255 255 
-0.1752 0.5393 0.7423 255 255 255 
0.0045 -0.8866 0.3243 255 255 255 
0.0045 0.8866 0.3243 255 255 255 
0.0876 -0.2697 -0.9004 255 255 255 
0.0876 0.2697 -0.9004 255 255 255 
-0.5248 0.7146 0.3243 255 255 255 
-0.5175 -0.7199 -0.3243 255 255 255 
-0.5175 0.7199 -0.3243 255 255 255 
0.4644 -0.6719 0.4763 255 255 255 
0.4644 0.6719 0.4763 255 255 255 
0.6339 -0.6421 0.2563 255 255 255 
0.6339 0.6421 0.2563 255 255 255 
-0.7064 -0.0000 -0.6284 255 255 255 
0.3757 0.6169 0.6079 255 255 255 
0.3757 -0.6169 0.6079 255 255 255 
-0.6543 -0.4754 -0.4999 255 255 255 
-0.6543 0.4754 -0.4999 255 255 255 
-0.7028 0.1667 -0.6079 255 255 255 
-0.7028 -0.1667 -0.6079 255 255 255 
0.4588 0.3333 0.7423 255 255 255 
0.4588 -0.3333 0.7423 255 255 255 
0.2626 -0.8083 0.4249 255 255 255 
-0.6476 -0.6493 0.2301 255 255 255 
-0.6476 0.6493 0.2301 255 255 255 
-0.4253 -0.0000 0.8360 255 255 255 
0.5939 0.2500 0.6816 255 255 255 
0.5939 -0.2500 0.6816 255 255 255 
-0.3335 -0.5513 0.6816 255 255 255 
0.2881 -0.8866 0.1491 255 255 255 
-0.4999 -0.0000 -0.8088 255 255 255 
-0.8903 0.1468 0.2563 255 255 255 
-0.8903 -0.1468 0.2563 255 255 255 
-0.0761 0.2341 -0.9129 255 255 255 
-0.0761 -0.2341 -0.9129 255 255 255 
-0.7588 0.5513 -0.0065 255 255 255 
-0.7588 -0.5513 -0.0065 255 255 255 
0.2499 0.7692 -0.4999 255 255 255 
0.2499 -0.7692 -0.4999 255 255 255 
0.8446 -0.2697 0.3243 255 255 255 
0.8446 0.2697 0.3243 255 255 255 
-0.9380 -0.0000 0.0065 255 255 255 
-0.8065 -0.4045 -0.2563 255 255 255 
-0.6274 0.1468 0.6816 255 255 255 
-0.6274 -0.1468 0.6816 255 255 255 
0.4955 -0.6493 -0.4763 255 255 255 
0.4955 0.6493 -0.4763 255 255 255 
0.1422 0.9059 0.2301 255 255 255 
0.6665 0.2782 -0.6079 255 255 255 
0.6665 -0.2782 -0.6079 255 255 255 
0.3441 -0.2500 0.8360 255 255 255 
0.6876 0.4996 -0.4249 255 255 255 
-0.3441 -0.2500 -0.8360 255 255 255 
-0.6665 0.2782 0.6079 255 255 255 
-0.6665 -0.2782 0.6079 255 255 255 
-0.4955 -0.6493 0.4763 255 255 255 
-0.4955 0.6493 0.4763 255 255 255 
0.6274 0.1468 -0.6816 255 255 255 
0.6274 -0.1468 -0.6816 255 255 255 
0.9380 -0.0000 -0.0065 255 255 255 
-0.8446 -0.2697 -0.3243 255 255 255 
-0.8446 0.2697 -0.3243 255 255 255 
-0.2499 0.7692 0.4999 255 255 255 
-0.2499 -0.7692 0.4999 255 255 255 
0.7588 0.5513 0.0065 255 255 255 
0.7588 -0.5513 0.0065 255 255 255 
0.0761 0.2341 0.9129 255 255 255 
0.0761 -0.2341 0.9129 255 255 255 
-0.7541 -0.5479 0.1491 255 255 255 
0.8903 0.1468 -0.2563 255 255 255 
0.8903 -0.1468 -0.2563 255 255 255 
0.4999 0.0000 0.8088 255 255 255 
-0.2881 -0.8866 -0.1491 255 255 255 
-0.2881 0.8866 -0.1491 255 255 255 
0.3335 0.5513 -0.6816 255 255 255 
0.3335 -0.5513 -0.6816 255 255 255 
-0.5939 0.2500 -0.6816 255 255 255 
-0.5939 -0.2500 -0.6816 255 255 255 
0.4253 -0.0000 -0.8360 255 255 255 
0.6476 -0.6493 -0.2301 255 255 255 
0.6476 0.6493 -0.2301 255 255 255 
-0.2626 0.8083 -0.4249 255 255 255 
-0.2626 -0.8083 -0.4249 255 255 255 
-0.4588 0.3333 -0.7423 255 255 255 
-0.4588 -0.3333 -0.7423 255 255 255 
0.7028 0.1667 0.6079 255 255 255 
0.7028 -0.1667 0.6079 255 255 255 
0.6543 -0.4754 0.4999 255 255 255 
0.6543 0.4754 0.4999 255 255 255 
-0.3757 0.6169 -0.6079 255 255 255 
-0.3757 -0.6169 -0.6079 255 255 255 
0.7064 0.0000 0.6284 255 255 255 
-0.6339 -0.6421 -0.2563 255 255 255 
-0.6339 0.6421 -0.2563 255 255 255 
-0.4644 -0.6719 -0.4763 255 255 255 
-0.4644 0.6719 -0.4763 255 255 255 
0.5175 -0.7199 0.3243 255 255 255 
0.5248 -0.7146 -0.3243 255 255 255 
0.5248 0.7146 -0.3243 255 255 255 
-0.0876 -0.2697 0.9004 255 255 255 
-0.0876 0.2697 0.9004 255 255 255 
-0.0045 -0.8866 -0.3243 255 255 255 
-0.0045 0.8866 -0.3243 255 255 255 
0.1545 0.4754 0.8088 255 255 255 
0.1752 -0.5393 -0.7423 255 255 255 
0.1752 0.5393 -0.7423 255 255 255 
0.1355 0.8921 -0.2563 255 255 255 
0.1355 -0.8921 -0.2563 255 255 255 
-0.4213 -0.4876 -0.6816 255 255 255 
-0.4213 0.4876 -0.6816 255 255 255 
0.2836 -0.0000 -0.9004 255 255 255 
0.2836 -0.8727 -0.1752 255 255 255 
0.2836 0.8727 -0.1752 255 255 255 
-0.8088 -0.0000 0.4999 255 255 255 
0.4706 0.5479 -0.6079 255 255 255 
0.4706 -0.5479 -0.6079 255 255 255 
-0.2898 0.8921 0.0065 255 255 255 
-0.2898 -0.8921 0.0065 255 255 255 
-0.4174 0.8165 -0.2301 255 255 255 
-0.4174 -0.8165 -0.2301 255 255 255 
-0.5248 -0.7146 0.3243 255 255 255 
-0.0542 -0.6421 0.6816 255 255 255 
-0.0542 0.6421 0.6816 255 255 255 
-0.0587 -0.7199 -0.6079 255 255 255 
-0.0587 0.7199 -0.6079 255 255 255 
-0.0192 0.8165 -0.4763 255 255 255 
-0.0192 -0.8165 -0.4763 255 255 255 
-0.5589 0.7692 0.0000 255 255 255 
-0.5589 -0.7692 0.0000 255 255 255 
0.8418 0.2782 -0.3243 255 255 255 
0.8418 -0.2782 -0.3243 255 255 255 
-0.2294 0.1667 -0.9004 255 255 255 
-0.2294 -0.1667 -0.9004 255 255 255 
0.9176 -0.0000 -0.1752 255 255 255 
-0.8499 -0.0000 -0.4249 255 255 255 
0.9322 -0.0000 0.1491 255 255 255 
0.9056 -0.1447 0.2301 255 255 255 
0.9056 0.1447 0.2301 255 255 255 
0.1991 -0.1447 -0.9129 255 255 255 
0.1991 0.1447 -0.9129 255 255 255 
0.5671 -0.0000 -0.7423 255 255 255 
-0.7825 0.2341 -0.4763 255 255 255 
-0.7825 -0.2341 -0.4763 255 255 255 
0.0587 0.7199 0.6079 255 255 255 
0.7541 0.5479 -0.1491 255 255 255 
0.7541 -0.5479 -0.1491 255 255 255 
0.7706 0.2706 -0.4763 255 255 255 
0.7706 -0.2706 -0.4763 255 255 255 
-0.4044 0.2938 0.8088 255 255 255 
-0.4044 -0.2938 0.8088 255 255 255 
-0.7423 -0.5393 -0.1752 255 255 255 
-0.7423 0.5393 -0.1752 255 255 255 
0.1422 -0.9059 0.2301 255 255 255 
-0.6876 0.4996 0.4249 255 255 255 
-0.6876 -0.4996 0.4249 255 255 255 
-0.3441 0.2500 -0.8360 255 255 255 
0.8065 0.4045 0.2563 255 255 255 
0.8065 -0.4045 0.2563 255 255 255 
-0.9043 0.2938 0.0000 255 255 255 
-0.9043 -0.2938 -0.0000 255 255 255 
0.2461 0.0000 0.9129 255 255 255 
-0.1545 -0.4754 -0.8088 255 255 255 
-0.1545 0.4754 -0.8088 255 255 255 
-0.2183 -0.6719 -0.6284 255 255 255 
-0.2183 0.6719 -0.6284 255 255 255 
-0.5715 0.4152 0.6284 255 255 255 
-0.5715 -0.4152 0.6284 255 255 255 
-0.4147 -0.8013 0.2563 255 255 255 
-0.4147 0.8013 0.2563 255 255 255 
0.8176 0.4152 -0.2301 255 255 255 
0.8176 -0.4152 -0.2301 255 255 255 
-0.1314 -0.4045 0.8360 255 255 255 
-0.1314 0.4045 0.8360 255 255 255 

