ply
format ascii 1.0
element vertex 162
property float x
property float y
property float z
property uchar red
property uchar green
property uchar blue
end_header
0.0000 0.0000 -1.0000 255 255 255 
0.0000 0.0000 1.0000 255 255 255 
0.0000 -1.0000 0.0000 255 255 255 
-0.0000 1.0000 0.0000 255 255 255 
-1.0000 -0.0000 0.0000 255 255 255 
1.0000 0.0000 -0.0000 255 255 255 
0.4360 0.8642 0.2511 255 255 255 
0.0776 0.2389 0.9679 255 255 255 
0.0776 -0.2389 0.9679 255 255 255 
0.2764 -0.8507 0.4472 255 255 255 
0.2764 0.8507 0.4472 255 255 255 
-0.7236 -0.5257 0.4472 255 255 255 
-0.7236 0.5257 0.4472 255 255 255 
0.2629 0.8090 -0.5257 255 255 255 
0.2629 -0.8090 -0.5257 255 255 255 
-0.4472 -0.0000 0.8944 255 255 255 
-0.4472 -0.5257 -0.7236 255 255 255 
-0.4472 -0.8507 0.2764 255 255 255 
-0.4472 0.8507 0.2764 255 255 255 
-0.4472 0.5257 -0.7236 255 255 255 
0.9566 0.1476 0.2511 255 255 255 
0.9566 -0.1476 0.2511 255 255 255 
0.1552 0.9554 0.2511 255 255 255 
0.1552 -0.9554 0.2511 255 255 255 
0.8127 -0.2952 -0.5023 255 255 255 
0.8127 0.2952 -0.5023 255 255 255 
0.2328 -0.7166 0.6575 255 255 255 
0.2328 0.7166 0.6575 255 255 255 
-0.1625 -0.5000 -0.8507 255 255 255 
-0.1625 0.5000 -0.8507 255 255 255 
0.6708 -0.1625 -0.7236 255 255 255 
0.6708 0.6882 0.2764 255 255 255 
0.6708 0.1625 -0.7236 255 255 255 
0.1382 -0.9511 -0.2764 255 255 255 
0.1382 -0.4253 -0.8944 255 255 255 
0.1382 0.4253 -0.8944 255 255 255 
0.1382 0.9511 -0.2764 255 255 255 
-0.8618 -0.4253 -0.2764 255 255 255 
-0.8618 0.4253 -0.2764 255 255 255 
-0.3090 -0.9511 0.0000 255 255 255 
-0.3090 0.9511 0.0000 255 255 255 
0.8090 -0.5878 0.0000 255 255 255 
0.8090 0.5878 0.0000 255 255 255 
0.3618 0.2629 0.8944 255 255 255 
0.3618 -0.5878 -0.7236 255 255 255 
0.3618 0.5878 -0.7236 255 255 255 
0.3618 -0.2629 0.8944 255 255 255 
-0.6382 0.2629 -0.7236 255 255 255 
-0.6382 -0.2629 -0.7236 255 255 255 
-0.6872 0.6817 0.2511 255 255 255 
-0.6872 -0.6817 0.2511 255 255 255 
-0.0296 0.8642 -0.5023 255 255 255 
-0.0296 -0.8642 -0.5023 255 255 255 
-0.2511 -0.0000 -0.9679 255 255 255 
-0.6095 0.4429 0.6575 255 255 255 
-0.6095 -0.4429 0.6575 255 255 255 
-0.8311 0.2389 -0.5023 255 255 255 
-0.8311 -0.2389 -0.5023 255 255 255 
-0.5319 0.6817 0.5023 255 255 255 
-0.5319 -0.6817 0.5023 255 255 255 
-0.7534 -0.0000 -0.6575 255 255 255 
-0.5257 -0.0000 -0.8507 255 255 255 
0.4840 -0.7166 0.5023 255 255 255 
0.4840 0.7166 0.5023 255 255 255 
0.2032 0.1476 -0.9679 255 255 255 
0.2032 -0.1476 -0.9679 255 255 255 
-0.9511 0.3090 0.0000 255 255 255 
-0.2629 -0.8090 0.5257 255 255 255 
0.8607 0.4429 -0.2511 255 255 255 
0.8607 -0.4429 -0.2511 255 255 255 
-0.6882 -0.5000 -0.5257 255 255 255 
-0.6882 0.5000 -0.5257 255 255 255 
0.4360 -0.8642 0.2511 255 255 255 
-0.4253 -0.3090 0.8507 255 255 255 
-0.4253 0.3090 0.8507 255 255 255 
-0.8507 -0.0000 0.5257 255 255 255 
-0.8944 -0.0000 -0.4472 255 255 255 
0.6708 -0.6882 0.2764 255 255 255 
0.9472 -0.1625 -0.2764 255 255 255 
0.9472 0.1625 -0.2764 255 255 255 
-0.0528 -0.6882 0.7236 255 255 255 
-0.0528 0.6882 0.7236 255 255 255 
-0.5878 0.8090 0.0000 255 255 255 
-0.5878 -0.8090 0.0000 255 255 255 
0.5878 0.8090 0.0000 255 255 255 
0.5878 -0.8090 0.0000 255 255 255 
0.0528 -0.6882 -0.7236 255 255 255 
0.0528 0.6882 -0.7236 255 255 255 
-0.9472 -0.1625 0.2764 255 255 255 
-0.9472 0.1625 0.2764 255 255 255 
-0.6708 -0.6882 -0.2764 255 255 255 
0.8944 0.0000 0.4472 255 255 255 
0.8507 -0.0000 -0.5257 255 255 255 
0.4253 -0.3090 -0.8507 255 255 255 
0.4253 0.3090 -0.8507 255 255 255 
0.6882 -0.5000 0.5257 255 255 255 
0.6882 0.5000 0.5257 255 255 255 
-0.8607 0.4429 0.2511 255 255 255 
-0.8607 -0.4429 0.2511 255 255 255 
0.9511 -0.3090 0.0000 255 255 255 
0.9511 0.3090 0.0000 255 255 255 
-0.2032 0.1476 0.9679 255 255 255 
-0.2032 -0.1476 0.9679 255 255 255 
-0.4840 -0.7166 -0.5023 255 255 255 
-0.4840 0.7166 -0.5023 255 255 255 
0.5257 0.0000 0.8507 255 255 255 
0.7534 0.0000 0.6575 255 255 255 
0.5319 0.6817 -0.5023 255 255 255 
0.5319 -0.6817 -0.5023 255 255 255 
0.8311 0.2389 0.5023 255 255 255 
0.8311 -0.2389 0.5023 255 255 255 
0.6095 0.4429 -0.6575 255 255 255 
0.6095 -0.4429 -0.6575 255 255 255 
0.2511 0.0000 0.9679 255 255 255 
0.0296 0.8642 0.5023 255 255 255 
0.0296 -0.8642 0.5023 255 255 255 
0.6872 0.6817 -0.2511 255 255 255 
0.6872 -0.6817 -0.2511 255 255 255 
0.6382 0.2629 0.7236 255 255 255 
0.6382 -0.2629 0.7236 255 255 255 
-0.3618 0.2629 -0.8944 255 255 255 
-0.3618 -0.5878 0.7236 255 255 255 
-0.3618 0.5878 0.7236 255 255 255 
-0.3618 -0.2629 -0.8944 255 255 255 
-0.8090 -0.5878 -0.0000 255 255 255 
-0.8090 0.5878 -0.0000 255 255 255 
-0.9511 -0.3090 0.0000 255 255 255 
0.3090 -0.9511 -0.0000 255 255 255 
0.3090 0.9511 -0.0000 255 255 255 
0.8618 -0.4253 0.2764 255 255 255 
0.8618 0.4253 0.2764 255 255 255 
-0.1382 -0.9511 0.2764 255 255 255 
-0.1382 -0.4253 0.8944 255 255 255 
-0.1382 0.4253 0.8944 255 255 255 
-0.1382 0.9511 0.2764 255 255 255 
-0.6708 -0.1625 0.7236 255 255 255 
-0.6708 0.6882 -0.2764 255 255 255 
-0.6708 0.1625 0.7236 255 255 255 
0.1625 -0.5000 0.8507 255 255 255 
0.1625 0.5000 0.8507 255 255 255 
-0.2328 -0.7166 -0.6575 255 255 255 
-0.2328 0.7166 -0.6575 255 255 255 
-0.8127 -0.2952 0.5023 255 255 255 
-0.8127 0.2952 0.5023 255 255 255 
-0.1552 0.9554 -0.2511 255 255 255 
-0.1552 -0.9554 -0.2511 255 255 255 
-0.9566 0.1476 -0.2511 255 255 255 
-0.9566 -0.1476 -0.2511 255 255 255 
0.4472 -0.0000 -0.8944 255 255 255 
0.4472 -0.5257 0.7236 255 255 255 
0.4472 -0.8507 -0.2764 255 255 255 
0.4472 0.8507 -0.2764 255 255 255 
0.4472 0.5257 0.7236 255 255 255 
-0.2629 0.8090 0.5257 255 255 255 
0.7236 -0.5257 -0.4472 255 255 255 
0.7236 0.5257 -0.4472 255 255 255 
-0.2764 -0.8507 -0.4472 255 255 255 
-0.2764 0.8507 -0.4472 255 255 255 
-0.0776 0.2389 -0.9679 255 255 255 
-0.0776 -0.2389 -0.9679 255 255 255 
-0.4360 0.8642 -0.2511 255 255 255 
-0.4360 -0.8642 -0.2511 255 255 255 

