ply
format ascii 1.0
element vertex 62
property float x
property float y
property float z
property uchar red
property uchar green
property uchar blue
end_header
-0.0000 -0.0000 -0.8157 255 255 255 
0.0000 -0.0000 0.8157 255 255 255 
-0.0000 0.7965 -0.0000 255 255 255 
0.0000 -0.7965 0.0000 255 255 255 
0.7296 0.0000 0.3648 255 255 255 
-0.5481 0.3982 -0.4187 255 255 255 
-0.2094 -0.6444 0.4187 255 255 255 
-0.2094 0.6444 0.4187 255 255 255 
-0.7575 -0.2461 -0.0000 255 255 255 
-0.7575 0.2461 -0.0000 255 255 255 
-0.4682 -0.6444 -0.0000 255 255 255 
-0.4682 0.6444 -0.0000 255 255 255 
-0.4187 -0.0000 -0.6775 255 255 255 
-0.2255 -0.6939 -0.3648 255 255 255 
-0.2255 0.6939 -0.3648 255 255 255 
-0.1491 0.4588 0.6315 255 255 255 
-0.1491 -0.4588 0.6315 255 255 255 
0.7805 -0.0000 -0.1491 255 255 255 
-0.3903 -0.2836 -0.6315 255 255 255 
-0.3903 0.2836 -0.6315 255 255 255 
0.6315 0.4588 0.1491 255 255 255 
0.6315 -0.4588 0.1491 255 255 255 
0.5481 -0.3982 0.4187 255 255 255 
0.5903 0.4289 -0.3648 255 255 255 
0.5903 -0.4289 -0.3648 255 255 255 
0.3388 -0.2461 -0.6775 255 255 255 
0.3388 0.2461 -0.6775 255 255 255 
0.4824 -0.0000 -0.6315 255 255 255 
0.6775 -0.0000 -0.4187 255 255 255 
-0.2412 0.7423 0.1491 255 255 255 
-0.2412 -0.7423 0.1491 255 255 255 
0.1294 0.3982 0.6775 255 255 255 
0.1294 -0.3982 0.6775 255 255 255 
-0.1294 0.3982 -0.6775 255 255 255 
-0.1294 -0.3982 -0.6775 255 255 255 
0.2412 0.7423 -0.1491 255 255 255 
0.2412 -0.7423 -0.1491 255 255 255 
-0.6775 -0.0000 0.4187 255 255 255 
-0.4824 -0.0000 0.6315 255 255 255 
-0.3388 -0.2461 0.6775 255 255 255 
-0.3388 0.2461 0.6775 255 255 255 
-0.5903 0.4289 0.3648 255 255 255 
-0.5903 -0.4289 0.3648 255 255 255 
-0.5481 -0.3982 -0.4187 255 255 255 
-0.6315 0.4588 -0.1491 255 255 255 
-0.6315 -0.4588 -0.1491 255 255 255 
0.3903 -0.2836 0.6315 255 255 255 
0.3903 0.2836 0.6315 255 255 255 
-0.7805 -0.0000 0.1491 255 255 255 
0.1491 0.4588 -0.6315 255 255 255 
0.1491 -0.4588 -0.6315 255 255 255 
0.2255 -0.6939 0.3648 255 255 255 
0.2255 0.6939 0.3648 255 255 255 
0.4187 0.0000 0.6775 255 255 255 
0.4682 -0.6444 0.0000 255 255 255 
0.4682 0.6444 0.0000 255 255 255 
0.7575 -0.2461 0.0000 255 255 255 
0.7575 0.2461 0.0000 255 255 255 
0.2094 -0.6444 -0.4187 255 255 255 
0.2094 0.6444 -0.4187 255 255 255 
0.5481 0.3982 0.4187 255 255 255 
-0.7296 -0.0000 -0.3648 255 255 255 

