ply
format ascii 1.0
element vertex 92
property float x
property float y
property float z
property uchar red
property uchar green
property uchar blue
end_header
0.0000 0.0000 -1.0000 255 255 255 
0.0000 0.0000 1.0000 255 255 255 
0.2764 -0.8507 0.4472 255 255 255 
0.2764 0.8507 0.4472 255 255 255 
-0.7236 -0.5257 0.4472 255 255 255 
-0.7236 0.5257 0.4472 255 255 255 
-0.4911 -0.3568 -0.7947 255 255 255 
-0.4911 0.3568 -0.7947 255 255 255 
-0.9643 -0.2018 -0.1716 255 255 255 
-0.9643 0.2018 -0.1716 255 255 255 
0.1061 0.3265 0.9392 255 255 255 
0.1061 -0.9794 0.1716 255 255 255 
0.1061 0.9794 0.1716 255 255 255 
0.1061 -0.3265 0.9392 255 255 255 
0.1876 0.5774 -0.7947 255 255 255 
0.1876 -0.5774 -0.7947 255 255 255 
0.8332 -0.2018 -0.5149 255 255 255 
0.8332 0.2018 -0.5149 255 255 255 
-0.4899 -0.8547 -0.1716 255 255 255 
-0.4899 0.8547 -0.1716 255 255 255 
0.5554 -0.4035 -0.7271 255 255 255 
0.5554 0.6530 0.5149 255 255 255 
0.5554 0.4035 -0.7271 255 255 255 
-0.3035 -0.9342 0.1876 255 255 255 
-0.3035 0.9342 0.1876 255 255 255 
0.2122 -0.6530 0.7271 255 255 255 
0.2122 0.6530 0.7271 255 255 255 
0.9822 -0.0000 -0.1876 255 255 255 
-0.7947 -0.5774 -0.1876 255 255 255 
0.6615 0.7300 -0.1716 255 255 255 
0.6615 -0.7300 -0.1716 255 255 255 
0.4911 -0.3568 0.7947 255 255 255 
0.6866 0.0000 0.7271 255 255 255 
0.3433 0.0000 0.9392 255 255 255 
0.0656 -0.8547 -0.5149 255 255 255 
0.0656 0.8547 -0.5149 255 255 255 
-0.2777 -0.2018 0.9392 255 255 255 
-0.2777 0.2018 0.9392 255 255 255 
-0.6071 -0.0000 0.7947 255 255 255 
0.7926 0.3265 0.5149 255 255 255 
0.7926 -0.3265 0.5149 255 255 255 
-0.8944 -0.0000 -0.4472 255 255 255 
-0.8987 -0.4035 0.1716 255 255 255 
-0.8987 0.4035 0.1716 255 255 255 
0.4494 0.7300 -0.5149 255 255 255 
0.4494 -0.7300 -0.5149 255 255 255 
-0.1876 0.5774 0.7947 255 255 255 
-0.4494 0.7300 0.5149 255 255 255 
0.8987 -0.4035 -0.1716 255 255 255 
0.8987 0.4035 -0.1716 255 255 255 
0.8944 0.0000 0.4472 255 255 255 
-0.7926 0.3265 -0.5149 255 255 255 
-0.7926 -0.3265 -0.5149 255 255 255 
0.5554 -0.6530 0.5149 255 255 255 
0.6071 -0.0000 -0.7947 255 255 255 
0.2777 -0.2018 -0.9392 255 255 255 
0.2777 0.2018 -0.9392 255 255 255 
-0.0656 -0.8547 0.5149 255 255 255 
-0.0656 0.8547 0.5149 255 255 255 
-0.3433 -0.0000 -0.9392 255 255 255 
-0.6866 -0.0000 -0.7271 255 255 255 
-0.6615 0.7300 0.1716 255 255 255 
-0.6615 -0.7300 0.1716 255 255 255 
0.7947 0.5774 0.1876 255 255 255 
0.7947 -0.5774 0.1876 255 255 255 
-0.9822 -0.0000 0.1876 255 255 255 
-0.2122 -0.6530 -0.7271 255 255 255 
-0.2122 0.6530 -0.7271 255 255 255 
0.3035 -0.9342 -0.1876 255 255 255 
0.3035 0.9342 -0.1876 255 255 255 
-0.5554 -0.4035 0.7271 255 255 255 
-0.5554 -0.6530 -0.5149 255 255 255 
-0.5554 0.6530 -0.5149 255 255 255 
-0.5554 0.4035 0.7271 255 255 255 
0.4899 -0.8547 0.1716 255 255 255 
0.4899 0.8547 0.1716 255 255 255 
-0.8332 -0.2018 0.5149 255 255 255 
-0.8332 0.2018 0.5149 255 255 255 
-0.1876 -0.5774 0.7947 255 255 255 
-0.1061 0.3265 -0.9392 255 255 255 
-0.1061 -0.9794 -0.1716 255 255 255 
-0.1061 0.9794 -0.1716 255 255 255 
-0.1061 -0.3265 -0.9392 255 255 255 
-0.7947 0.5774 -0.1876 255 255 255 
-0.4494 -0.7300 0.5149 255 255 255 
0.9643 -0.2018 0.1716 255 255 255 
0.9643 0.2018 0.1716 255 255 255 
0.4911 0.3568 0.7947 255 255 255 
0.7236 -0.5257 -0.4472 255 255 255 
0.7236 0.5257 -0.4472 255 255 255 
-0.2764 -0.8507 -0.4472 255 255 255 
-0.2764 0.8507 -0.4472 255 255 255 

